# 3D point list with one line of data per point:
#   POINT3D_ID, X, Y, Z, R, G, B, ERROR, TRACK[] as (IMAGE_ID, POINT2D_IDX)
# Number of points: 405, mean track length: 3.4894256979039384
7181 -1.3727680320069315 0.37466797369555632 4.22370861631126 210 206 205 0.59465911258730786 15 7313 17 4847 12 4198
7182 -0.020072572763105714 0.35594266901530958 3.8971024403909151 168 177 172 0.69229386010902616 11 7617 17 4848 1 6787
7183 -0.62302919138406643 0.35193994712509125 4.1531843597521245 155 152 143 0.73363375592082147 15 10126 17 4854 12 6084 1 5144
7184 -0.48378120181316897 0.42028819932836903 4.0859696219426009 175 159 136 0.45023990936445885 15 10256 17 4869 12 4106 1 5193
7185 -0.16766983209463593 0.3986150549679589 3.9899334104166027 222 215 189 1.1264817484201921 15 9980 17 4873 12 3089 1 5252
7187 -0.92148750991002082 0.40541534155269315 4.1099074341570416 159 149 137 0.28273670625105329 15 5591 17 4882 12 5978
7188 -0.74149235804856839 0.43767069345727627 4.1479800230323969 217 211 199 0.66971372009856633 15 10264 17 4888 12 4101
7189 -0.938197380677672 0.3858324532265946 4.1051587705667405 195 190 184 0.4644892060381598 15 10141 17 4903 12 4233
7190 -1.3208601886282556 0.40706403184202405 4.2437671137421056 200 190 188 0.92197406689946815 15 5625 17 4906 12 4222
7191 -1.1429938407817357 0.42264751792899208 4.2554189272630412 88 79 74 1.1626977704133654 15 5600 17 4907 12 4236
7192 0.27478926665122155 0.24234383833414197 3.8417704463967555 161 160 154 0.54606896627391466 15 5553 17 4916 1 7310
7193 0.0072662999646286724 0.26014336460553539 3.9210734643206475 187 194 186 0.52444781981984623 15 3971 17 4924 1 5052
7195 -1.6443166479314564 0.24204880105490018 4.2555123628946845 169 164 160 1.6690295600745915 15 7880 17 4937 12 4769
7196 -0.44615237866147178 0.26048589221294116 4.0881401410834481 189 186 179 0.44078687240103021 15 5723 17 4943 12 3457 1 3990
7197 -1.3032120435544288 0.27080964894705001 4.2944367619314026 125 117 108 2.232344925330688 15 5752 17 4945 12 3428
7198 -1.0610290052041149 0.32572152715015412 4.2501216715927743 61 48 39 0.62342563104786464 15 7921 17 4947 12 3455
7199 -0.37814840164330321 0.30959166569420071 4.1015375340478721 164 156 135 0.57635952855534367 15 3986 17 4949 12 4368
7200 -1.3739730452355805 0.27986895624080982 4.1655425163316337 37 37 37 0.63768563706908854 15 7847 17 4951 12 4828
7201 -1.3404317721403911 0.31235879251049725 4.238977088166064 225 220 214 0.83950621975248441 15 5720 17 4959 12 3459
7202 -1.1775249830370418 0.29042755241296803 4.2423630405450554 114 101 92 0.41383666742417846 15 7981 17 4974 12 4789
7203 -0.46423690670836554 0.28796864443197617 4.091754439349736 199 180 148 0.35456824958163946 15 5558 17 4975 12 3447 1 5235
7204 -1.1684336816247987 0.29703898052204358 4.237656370771135 177 167 162 0.19539142415977442 15 8020 17 4981 12 4787
7205 -0.7318296732818671 0.30118978807923924 4.1688689076157184 132 133 127 1.6558027670144191 15 7929 17 4983 12 4913 1 5269
7207 -0.64677974226206081 -0.12939635348065914 4.065661258356446 162 157 153 1.8866030769407607 15 7805 17 4994 1 3881
7209 -1.012556132912132 0.44146266416666752 4.1828072787063926 185 159 142 0.30483233747026434 15 10231 17 5045 12 5952
7210 0.17011000366347567 -0.48132285346523085 4.049819932964831 87 58 59 1.4085769112136262 15 8905 17 5050 1 4308
7212 -1.6079296170163671 -0.29807124208623276 4.3685786326718592 19 16 7 0.6146777755248406 15 8820 17 5060 12 5195
7213 0.022667168983234273 -0.41425126678658231 4.0839959627119207 32 31 27 1.1115260054284883 15 5140 17 5062 1 8249
7214 -0.73948725936492721 -0.40145482286536915 4.1876186157333857 186 171 140 0.71648564324545649 15 8997 17 5071 1 3064
7215 0.38271782140823696 -0.53533737609218757 3.9510473057719198 214 210 198 1.2046894946392641 15 5818 17 5085 1 6732
7216 -1.7010279313562258 -0.29251283361786973 4.5272129414111637 48 44 35 0.65722948957775851 15 8765 17 5101 12 5332
7217 0.11686446500930446 -0.97235210232032931 4.4913719824749272 73 70 55 1.6738435887918004 1 6158 2 4721
7219 39.259953871120089 -27.914241805391288 66.327931147059246 89 89 88 1.154172153004636 7 5213 5 6631 1 4567 18 9371 2 6064 10 8010 13 4138
7220 -0.90127486306020144 -0.19891286783601525 4.2310981239180343 185 184 180 1.8095438773807604 15 7625 17 5192 12 3751
7221 -1.2975777916986464 -0.27517957949271715 4.2626960780892293 124 120 111 2.6403928502206666 15 8773 17 5201
7222 -1.466244055070923 -0.28820834989137178 4.3465161283176119 86 83 76 0.37087212620168991 15 8839 17 5203 12 8023
7225 0.2334380017614065 -0.24539977683057473 3.9534623716015327 130 131 117 0.57035530968437542 15 5114 17 5220
7226 0.25381633829414013 -0.21245657430573556 3.9188099391744728 244 246 233 0.01664838282352268 15 6045 17 5224
7227 -0.96010162222610984 -0.23335584061069437 4.2717802984092161 135 130 124 0.29879312055842339 15 7668 17 5226 12 5449
7228 -0.14257384944774187 -0.22394146784367069 4.0876227654484261 185 129 10 0.043086399961366748 15 7694 12 4001
7229 -1.1366245150362877 -0.21294043741892738 4.156453138658029 146 137 138 0.50525083288476391 15 7677 17 5237 12 5441
7230 -1.362054900366148 -0.38828217433190415 4.5085694498363029 15 14 9 0.72787096395612094 15 8659 17 5274 12 5065
7232 -1.8057650772100695 -0.43297384126556859 4.6782149121963466 67 65 66 1.1368787251661987 15 6168 17 5306 12 4984
7233 -0.098622428284805955 -0.36674520854020271 4.0295218656729235 150 135 119 1.6650433942655209 15 8730 17 5309 12 4027 1 6269
7234 -1.284673261419504 -0.45784315954053811 4.7397797074606487 13 14 8 2.1832312740936368 15 3284 17 5314 12 3679
7235 -0.93323245025264656 -0.38804097659510406 4.1829405149867167 210 167 0 0.32213888647189587 15 8996 17 5316 12 3624
7236 -0.77382633057640371 -0.36749256625185978 4.1605385576443936 163 155 144 1.0019621903837681 15 8739 17 5331 12 4978 1 5476
7237 -1.6756625695868741 -0.30756491670131186 4.3898591757397121 103 96 78 0.97025521027609229 15 8817 17 5335 12 8067
7238 -1.4876800794482128 -0.30428522302136396 4.3484282293535728 114 110 101 0.12345249385360241 15 8812 17 5342 12 6510
7239 -1.4741910518525774 -0.29611632887087436 4.3599913477323371 210 207 202 2.2354989112846564 15 8851 17 5357 12 7987
7240 -0.12957349875480009 -0.31573844224712977 4.055244798553816 192 163 97 0.79564756521718694 15 8808 17 5377 1 6283
7241 -1.4535976181711079 -0.35046643033168579 4.4271192390682472 132 129 122 0.44899651789528633 15 8685 17 5381 12 5085
7242 -3.4385216011493496 -0.66045747150699863 8.5033518522271478 64 57 49 0.86865637820563957 18 10622 17 5396
7243 -1.1134614782804795 -0.33676185753173632 4.5859315047593512 73 69 62 1.8523070208784056 15 8775 17 5397 12 3605
7244 -1.0065357727758659 -0.32116438202537195 4.3983522632485172 123 120 113 0.46673752221422676 15 8840 17 5398 12 5381
7245 -0.52172579386592055 -0.29536516060733015 4.1024755933203654 255 252 191 0.16104623667759507 15 8844 17 5399
7246 -1.5102378288938507 -0.31194277133769188 4.3398350878098286 88 83 77 0.36792950001634545 15 8822 17 5400 12 8080
7247 0.075899613414004988 -0.048406560501743315 3.9197398202055416 114 86 82 1.5508344980688065 15 7555 17 5406 1 8099
7248 -1.4156941568998125 -0.055102360020910596 4.3553403628748466 75 72 67 0.67519095423121245 15 7448 17 5408 12 3730
7249 -1.2820161007685793 -0.038440060111004835 4.3265605488615764 120 117 110 0.57751656384702332 15 7568 17 5422 12 6484
7250 -0.67991404335891736 -0.045001252320024235 4.0376558701828698 254 254 249 0.67176130714835847 15 7564 17 5425 1 3809
7251 -0.64696780085307726 -0.079585140755084119 4.0480082385017493 149 147 135 0.59724325415706969 15 7482 17 5436 12 5301 1 5612
7252 -0.58687320180815006 -0.074814110248935986 4.0472199813205707 182 169 152 0.92393787767973679 15 5458 17 5437 1 3813
7253 2.501442032959734 0.77356645129828472 10.859877709641443 153 153 145 1.7270194097019411 8 3555 17 5445
7254 0.18240049990525825 -0.057690911261522662 3.8953937619806407 193 191 178 0.015618132547714287 15 7523 17 5455
7255 -0.69471328334286409 -0.072227032194013469 4.0519001866021274 118 118 108 0.5808634303740865 15 7508 17 5465 12 4653 1 5679
7256 -0.11223562815427514 -0.0026073494537858059 3.9255238691428254 162 159 154 1.2589478112358221 11 5223 17 5479 12 6647
7257 -1.3176567512980304 -0.0037906738872507048 4.3072158755524299 147 142 138 0.53888613458782908 15 7557 17 5480 12 4705
7258 -0.57549975782740137 0.74135837400500781 4.101563707579043 127 111 86 0.38676526383380372 15 10344 17 5487 12 5660
7260 -1.0574024252549712 0.68640372918639847 11.794500456182531 166 161 155 0.42716759614851646 8 6899 17 5489
7261 -0.45860544895047739 0.00088745540478848625 4.0078637888756159 151 147 138 1.3483807512196426 15 5517 17 5495 12 3382 1 5528
7262 -0.69527340426163275 0.0091815560873374381 4.0615996449142981 42 37 30 0.56395277339791017 15 8099 17 5502 1 5517
7263 -0.69909367688857549 -0.0041310948578591918 4.0602959665996803 113 94 79 1.550154110172127 15 7577 17 5503 12 2660 1 3841
7264 -0.65913637721738227 -0.032193451271024506 4.0658604245932075 79 75 63 0.79857043607990441 15 5425 17 5505 1 7265
7265 0.45442642770451613 -0.014458513565297947 3.9394834745536 136 133 118 1.6365036048648152 15 8125 17 5523
7266 -0.4467738903389607 -0.013358439829501592 3.9848845761706855 108 108 100 2.4767835094533481 15 5505 17 5536 1 7252
7268 -0.69116159828135448 -0.13798867220559807 4.0335172559996844 80 77 70 0.39418757986124819 15 6094 17 5556 12 5229 1 5349
7269 -0.77873711212977748 -0.14409703758109771 4.1535385877916919 204 203 198 1.1678800491833454 15 7777 17 5565 1 3867 12 5233
7270 -0.12691993420327699 -0.1766866325787691 4.0268221907417843 164 157 144 0.55553381393295265 15 6145 17 5581 1 6398
7271 -1.7181325121070474 -0.10508300850991635 4.3793206090589907 54 48 36 1.0774895564707465 15 8526 17 5606 12 5314
7272 -0.45674137664334508 -0.098986206559591866 3.9755167465365648 168 168 160 1.0396941760163836 15 7381 17 5607 12 3694 1 5624
7273 -1.0676368223867163 -0.09807425071460428 4.3521426323331607 13 11 5 0.51228784658301463 15 7754 17 5608 12 5285
7274 -1.0326269044880267 -0.10358322656566472 4.3583890710417537 56 53 48 1.2656143866421228 15 7758 17 5617 12 5282
7275 -0.85680921368209362 -0.10885112542880032 4.1359309752691811 158 140 138 0.64934344774912967 15 7731 12 7931
7276 -1.3091357732153208 -0.093584727577536206 4.3013814027646236 106 99 93 1.4410230028258422 15 7253 17 5627 12 5844
7277 -1.7227726946925626 -0.11426226134539784 4.4055449328801961 104 96 85 1.2337524527275507 15 7813 17 5630 12 3701
7278 -1.0415516149557993 -0.091099667258949732 4.3707869992613126 34 33 29 1.7021786995049839 15 7488 17 5633 12 3717
7279 -0.61884866879537559 -0.096184043657105561 4.0666960962293173 52 40 24 1.5266907910716405 15 5437 12 2412
7280 -0.67905575354038339 -0.13269989759342443 4.0425691080768615 61 60 54 0.49624093695390653 15 7769 17 5651 1 7701
7281 5.682208473934006 -4.7441511242848664 15.325565584913038 177 180 175 1.7963065456784686 16 8353 17 5910
7282 0.091950227127270232 -0.4889882767825397 4.0709319965014279 113 101 98 0.88952906121321529 11 5076 17 5951 1 6669
7283 0.17447953252755244 -0.48928978995820865 4.0579402780107481 155 154 152 1.0137782974235252 15 8865 17 5952 1 6671
7284 0.0034874773033619216 -0.4818336469440882 4.0357677109072085 140 138 125 0.67917399704238557 15 5876 17 5953 1 6668
7285 0.1703954832619774 -0.49285961727246258 4.0576505860954359 19 19 17 0.4837354573977698 11 8603 17 5966
7286 -0.021577412436231139 -0.48816775410325725 4.040565589721008 222 222 210 0.92761204256715335 15 8949 17 6006 1 4343
7287 -1.5594077236327724 -0.44583666849050319 4.4960874897182457 120 116 107 0.63524890773531306 15 8978 17 6008 12 5000
7288 -0.73957544859740376 -0.41795807970452997 4.2094467710179941 228 205 115 0.53349776364186541 15 9014 17 6011 12 5176
7289 -1.3942087540809485 -0.44864647795520141 4.4755011742469044 67 58 48 0.59162643653767844 15 8974 17 6013 12 5004
7290 -0.76587733876119191 -0.42532585294211755 4.2063748903217633 189 166 120 0.29766954941646528 15 8987 17 6022 12 6467
7291 -0.73152385704354772 -0.39639380753910963 4.2024666663692809 173 162 142 1.6657772384508174 5 8396 17 6027 12 4967
7292 -1.2183171757677762 -0.4870887253852777 4.6053470732478203 111 99 83 0.92593749297288819 15 8973 17 6071 12 5006
7293 -1.169957129802252 -0.48695263407893186 4.609255417073526 125 118 102 0.6181003439553292 15 8977 17 6072 12 5010
7294 -0.07246157895167217 -0.59151238528597316 4.0354641793780566 235 236 230 0.52659124183563177 15 5995 17 6089 1 6632
7295 -0.76970318349476086 -0.65481884473876262 4.309236297174599 76 75 80 0.59566620416707372 15 5916 17 6113
7296 -0.095248648863798469 -0.60421269953779377 4.0400420709058453 184 184 172 0.11636233608828851 15 5913 17 6120
7297 -0.69121579659788857 -0.63854790561487007 4.2535559257248137 86 86 94 1.3687949317805193 15 8322 17 6130
7298 -0.054591653838248135 -0.59645245112334355 4.029849274761232 172 169 150 0.87269696479501435 15 8325 17 6131 1 8221
7299 -0.49668671790710567 -0.52666094794130858 4.1165852482782004 172 171 167 1.9651778441570265 15 5832 17 6159 1 4456
7300 -1.8073504786624488 -0.65862891559273384 4.6932059131303276 119 116 109 0.087889050246587913 15 8434 17 6177
7301 0.37410029649421594 -0.54915462574117291 3.9788203911235787 107 100 81 2.8166251430269882 15 8421 17 6183 1 6622
7302 -0.47251658358824694 -0.54912199689050289 4.0897663265526774 254 254 253 1.8309560199212418 15 8429 17 6199 1 2094
7303 -0.1610571878761379 -0.54789156079205348 4.0803525999151624 141 140 135 1.2532665672782313 15 7324 17 6205 1 4484
7305 -0.93074236233085683 0.51128622967069837 4.0966050959865106 152 148 137 0.30444485140603317 15 9946 17 6221 12 9861
7306 -1.0191277740478168 0.5514802988538009 4.1737282614195808 92 69 53 1.1324621824702279 15 10067 17 6232 12 4328
7307 -0.058325283778661016 0.46611779092494143 3.8849704298633991 210 221 213 1.0193032879540223 11 9721 17 6251 12 6197 1 7012
7308 -0.15376179621126029 0.49285903409621173 3.9633066658428229 237 238 233 0.90493367600725161 15 6999 17 6252 12 6487
7309 -0.35691324595066887 0.54360773004122775 3.9578243638805244 148 149 143 0.88472132692766892 15 10585 17 6279 12 3223 1 7977
7310 -0.77338319781682396 0.59056816716855365 4.132269394085732 188 178 162 1.2010174600361248 15 10602 17 6286 12 2142
7311 -1.0028084862376729 0.57009672998469285 4.1218036060655896 30 25 16 0.31066718197979265 15 10026 17 6310 12 9531
7312 -1.0155718154026361 0.56140350429475649 4.1716324090943635 123 97 82 0.70524097459099222 15 10104 17 6315 12 6216
7313 -0.96378257748442797 0.52608059098220206 4.0912326882564205 129 125 114 1.546929773425697 15 10060 17 6324 12 9811
7314 -0.53308281584540063 0.57447140890235338 4.0856903091554395 177 164 142 0.78324060311991661 15 10590 17 6329 12 6249 1 7557
7315 -0.77521519226065538 0.57227800337095736 4.1203929490872753 137 134 119 0.91526443328274087 15 10054 17 6330 12 6209
7316 -1.2645344401560632 0.55873651715778772 4.1795343051265856 207 208 203 0.74773492247794937 15 7027 17 6334 12 4327
7317 -0.35815491601473559 0.52594788481490895 3.9592119269326069 194 195 190 0.49808683852122482 15 10045 17 6342 12 6288 1 7849
7318 -1.3701141410170163 0.44745254422635006 4.2412833548271927 90 76 69 0.065475028169563132 15 10319 17 6345 12 9036
7319 -0.14609936482244124 0.45570966443697136 3.9989329831886078 205 205 197 0.071914767277041672 15 9945 17 6363 12 9813
7320 -0.58579228792607596 0.47163608651032923 4.120470064232622 194 188 176 0.66615405345024359 15 8480 17 6366 12 6023
7321 -1.3466533034924122 0.46406119921065264 4.2436006217986204 179 166 162 0.51058777515835807 15 10232 17 6369 12 9202
7322 -1.1500519539989236 0.43816674097021963 4.1523139777284266 108 95 92 1.8095751106208182 5 4175 17 6374
7323 -1.4677175160997142 0.42098840224192718 4.2404581699559607 75 66 57 1.1818220354398103 15 10157 17 6384 12 6125
7324 -1.337037265822878 0.44636048515540927 4.2502390869908071 76 62 59 1.0262334578178025 15 5593 17 6398 12 4214
7325 0.81761582512692954 0.59137693912755418 4.3464455235388533 116 120 105 0.52489376240683194 16 7750 17 6408
7326 -0.35479893033355653 0.45691686870035497 3.9648139802655811 156 156 151 1.2136044252752152 15 9953 17 6415 12 9818 1 7853
7328 -0.45880945249647526 0.4867016608353491 4.0489032267805847 190 174 138 0.53895902641359505 15 9933 17 6442 12 9845
7330 -0.35385217109560235 0.44922004334415933 3.9691631033465269 123 122 117 0.88282297544930266 15 9910 17 6469 1 8037
7331 -0.46810826099054026 0.58288693090221266 4.0357849704052295 51 48 43 0.60227915249316932 15 6819 17 6473 1 8167
7332 -0.4973225802392825 0.75009652080602307 4.0766739368728757 148 143 132 0.70382869225318145 15 10372 17 6509 12 5492
7333 -0.78774456857502495 0.74730814492718989 4.1547012340357057 118 98 74 0.25803033171081913 15 10417 17 6534 12 5643
7334 -0.76558914646464138 0.79368362474351029 4.1269689826630858 27 21 9 0.31472649719542434 15 10349 17 6558 12 6509
7335 -0.24811526134136591 0.72723459460397077 3.9340211454404379 46 26 15 1.0348048432540518 15 10528 17 6576 12 3949
7337 -0.47393873235280598 0.752640296485941 4.0533674646101847 113 107 95 1.6404245111426901 15 10356 17 6596 1 7792
7339 -1.4092089980793048 0.6793757308981796 4.1691224985561863 186 182 181 1.9186060179435673 15 10569 17 6610 12 5618
7340 -0.73443507858318513 0.62921226142704845 4.1282914385048839 70 52 28 0.68224914455189489 15 10532 17 6618 12 6374
7342 -0.17744876076678301 0.59616047031705 3.9613314827201123 132 124 111 0.67386332680790173 15 10734 17 6628 12 4244 1 8047
7343 -1.405127972896997 -0.43333505728214095 4.4650023918030746 79 74 66 0.57728322848937763 15 9002 17 6633 12 5020
7344 0.25839971726031824 0.565465010748196 3.7915908479956544 79 69 42 0.10480260329862109 11 10314 17 6635
7345 -1.1633041172506504 -0.49270825501590271 4.6102047288041339 186 178 163 0.76220698932446707 15 5867 17 6645 12 5005
7346 -0.13574223814901454 -0.40896322275151098 4.024812356381644 182 179 170 1.5275118616685748 15 5866 17 6647 12 2635 1 5407 11 4922
7347 -1.5018905685666277 0.63057723608768967 4.2372783129599361 101 92 85 0.2010877354630301 17 6649 12 6268
7348 -0.3613574129691392 0.59319512764620019 3.9540174208228756 133 132 127 0.35625178984592409 15 10703 17 6650 12 4271 1 4879
7349 -0.47313802540656819 0.58953712919157353 4.0379020531075316 54 52 40 0.50884256286441854 15 6893 17 6659 12 6352 1 7620
7351 -0.15574503001139031 0.57439304543941372 3.9635941815022537 99 84 61 0.21519739008899919 15 10564 17 6668 1 7845
7352 -1.4491370655379352 0.61053858940833183 4.2300659973483521 133 124 119 0.75378249897267713 15 10029 17 6672
7353 -0.14856292995349848 0.66349298964307235 3.9836572231526617 148 145 136 0.10737034794917756 15 10386 17 6698
7354 -0.52027046337215055 0.67891835271480649 4.0846524485336833 170 159 137 0.21343400814245062 15 7197 17 6701 12 5679
7355 -0.17022493165048311 0.67621057166240173 3.9470284650554621 101 90 72 0.88961965203759164 15 8613 12 8212
7356 -0.47638969593296127 0.68162162562407524 4.0366030029583628 135 131 122 0.4637769231462554 15 7205 17 6713 12 5694 1 7512
7358 -0.46232514235100969 0.65453344532858082 4.0544333183296759 40 36 25 2.108022188460605 15 7292 17 6725 1 4734
7359 -0.54764158809468177 0.66234903795980249 4.0884678169865198 133 119 93 0.23473886475619629 15 10658 17 6726 12 5596
7360 -0.44439403727234511 0.19111967104452271 4.1213897997149607 191 174 139 1.0325627196583591 15 7896 17 6765 12 7313 1 7369
7361 -0.4802337239030981 0.20493397603465746 4.1574523622671684 115 109 95 0.6728042897880282 15 8445 17 6785 12 4785 1 7350
7362 -1.2416653630148329 0.17269072150716264 4.2730047356610514 252 248 245 0.49598148841816642 15 8134 17 6789 12 4945
7363 -0.69760035158553901 0.1813939330317898 4.2108746630238736 213 206 196 0.64109348430419821 15 7882 17 6792 12 4916 1 6869
7364 -1.252911160805813 0.51268523308827585 4.2621247166082403 85 70 65 1.7661588024322421 15 10006 17 6795 12 4125
7365 -0.71016733917526065 0.16902715800052681 4.181050555867059 155 152 141 2.2097177159092314 15 2068 17 6801 5 5660 12 7322 1 6896
7366 -0.52136956789019306 0.19121887918439912 4.1733345469913683 207 200 185 0.74587745696548569 15 7903 17 6807 12 4758 1 7341
7367 -0.42832420438781377 0.18652883178742835 4.1411615011072236 33 26 11 1.6942085317441384 15 7902 17 6809 1 5087
7368 -1.2496590361680622 0.17388614671212638 4.270011274250157 178 168 166 0.70769398184390619 15 8129 17 6817 12 4948
7370 -1.2080674605497739 0.25961735805993585 4.2192614764392973 217 217 220 0.45198452513267595 15 7863 17 6846 12 7047
7371 -0.84440848750029696 0.22844134069503147 4.2392086741176458 196 195 191 0.52412026129430933 15 7832 17 6866 12 4729
7372 -1.1936428456038277 0.41716681998580868 4.2178972574316811 149 141 138 0.88430492493607404 15 10291 17 6869 12 6139
7373 -1.2830451369353042 0.41317759981214325 4.2149145617262223 145 141 142 0.11388765142784046 15 10148 17 6871
7374 -0.9759978080523376 0.2398418334381045 4.2280524145822787 160 142 131 0.52451400087384836 15 7814 17 6879 12 7062
7375 -0.21833807881694042 0.20360168947125473 3.9572805824264385 15 16 6 0.77689241208466087 15 2882 17 6889 12 4751
7376 -0.95514457825199117 0.085674888247624856 4.2222913454259201 97 95 90 0.71045856248278161 15 8050 17 6891 12 4569
7377 -0.93118167481734582 0.096118660174698278 4.2035461456495273 47 44 40 1.2573357085682177 15 8200 17 6912 12 3308
7378 -0.42480950720777494 0.074336279424412482 4.1754800618932606 42 39 32 0.83613597784446447 15 7358 17 6925 12 5456
7379 -0.71333317923618522 0.069408625371941285 4.2464728424052698 144 141 132 0.55622425114807361 15 8070 17 6930 1 5285
7380 0.15415483906789756 0.062674949570847432 3.8602729702306986 240 240 232 1.0842004693750595 15 8193 17 6942 1 7254
7381 -0.92450167370487724 0.10144818118266997 4.1959095448229888 243 242 238 0.92526678902346815 15 5314 17 6950 12 6670
7382 -1.4565405855852993 0.63697639109013382 4.2009259992879429 149 144 138 1.9983315887287121 15 7340 17 6955 12 6237
7383 -0.96063502354044239 0.15034883936352417 4.2605979642918097 182 159 143 0.56549164745665959 15 8146 17 6959 12 4869
7384 -1.2904470153566909 0.12209361078312443 4.1787486598216015 188 184 181 0.44974635671863283 15 8458 17 6964 12 6697
7385 -0.35247151560457463 0.50535677682565738 3.9564343059763925 47 47 39 0.65127142283305961 15 10027 17 6968 12 4309 1 7837
7386 -0.87344573297357631 0.14353436332600455 4.2638413775466661 149 132 117 0.64417964606975608 15 5367 17 6972 12 7206
7387 -0.70355334907544376 0.16349932937390321 4.1919254180470151 149 146 137 1.0802494494942281 15 7296 17 6982 1 7352
7388 -1.1734203029228489 0.15184774413791308 4.2399746478286495 193 191 190 0.53406561550172327 15 8207 17 6985 12 7250
7389 -0.83986320552695681 0.1243989760843645 4.2843499544658457 198 195 190 0.49359499976824478 15 8217 17 6997 12 7236
7390 -0.95440374271836381 0.10836949953892189 4.229361889603882 222 221 219 0.43857527381504791 15 8184 17 7003 12 4952
7391 -1.0084355901608213 0.57159734089523384 4.1188157480099559 239 234 229 0.29992459258155929 15 10023 17 7004 12 6195
7393 -1.0623306607171312 0.12790326709976246 4.3212619894479563 110 100 91 0.72569621490823844 15 8228 17 7023 12 4889
7394 -1.5541378126171017 0.15134952884689223 4.2270754565129556 115 112 105 2.0430696537233857 15 2961 17 7028
7395 -1.5612411511131448 0.33762453124224573 4.2001602766345387 137 136 129 1.3904001179586032 15 3995 17 7032 12 4958
7396 -1.3221418465743775 0.35717759511674235 4.2392543987340581 16 16 14 1.2881412326293915 15 7950 17 7037 12 9250
7397 -0.088005054696653262 0.33626459484838134 3.946837226258384 111 108 99 0.39891696156647516 11 7595 15 10286 17 7039
7398 -1.5821050266269794 0.32646976687285301 4.193592743112486 107 106 102 1.5779372329475523 15 8006 17 7042 12 4744
7399 -0.14517940442748994 0.35973174605293429 3.9969393870678838 201 194 168 0.53088612574917327 15 10310 17 7046 12 5981 1 6856
7400 -0.71892973421314044 0.37515018259535993 4.1501735819637782 221 216 211 1.7149983730648861 15 10138 17 7048 12 9388 1 7967
7401 0.30766378555012308 0.33239974394284488 3.8234901025705259 112 112 100 1.9252173965747275 15 5601 17 7053 1 6897
7402 -0.98299656012269654 0.15642398601605306 4.2603837131518976 166 147 132 1.5510686979063912 15 8138 17 7054 12 3505
7403 -0.69590705843707001 0.35172593852986639 4.1633332845263329 221 213 202 0.72648963244238274 15 10134 17 7059
7404 -1.533065588708181 0.31494285735790623 4.1795345035576741 45 46 41 1.410110629428887 15 5715 17 7063 12 7065
7405 -1.0668321670955063 0.34001076902254679 4.184439952600151 94 84 74 0.04635758422083041 15 5570 17 7064
7406 -0.89740845062350005 0.3511493878121893 4.1980531402583958 186 173 157 0.76314132853353656 15 10209 17 7065
7407 -0.90171311619961247 0.34708154867345703 4.1930640555473317 74 61 43 0.28838998000599503 15 5524 17 7072 12 9282
7408 -1.5504403541023448 0.31676851232091896 4.1769390068621872 71 71 69 1.2182984952681351 15 8015 17 7080 12 4791
7409 -0.60912817935755326 0.4076914232921684 4.1369011141157186 156 150 138 0.61258962099164582 15 10295 17 7092 12 5991 1 5158
7410 -0.3460765371405205 0.3725874036986343 3.9768271779158262 161 161 153 0.34037820101759381 15 10296 17 7103 1 7092
7411 -1.1292046823526201 0.41165141590770798 4.2506551379459152 97 88 83 0.87336137802626113 15 10140 17 7105 12 9377
7412 -0.48602297314149173 0.38134480259445491 4.0727510212467308 174 161 126 0.42794571937066195 15 10270 17 7125 12 4203
7413 -0.48981380802075219 0.37288618760723402 4.0748455299622188 179 162 132 0.26812773465609446 15 10284 17 7129 12 4212
7414 -0.42894777777338589 0.38063250492184059 4.082888672502885 178 175 158 0.97903477679602247 15 5592 17 7135 12 9053
7415 -0.15878103570798985 0.37838219181259231 3.9871543032756804 25 26 20 0.88293047100965927 15 10224 17 7149 12 4107 1 7070
7416 -1.3815751543248596 0.3844240142878359 4.2199818200963408 225 221 220 0.61428116983778869 15 10192 17 7153 12 6075
7417 -0.61447824436516152 0.40474665798917009 4.1394149656969548 207 204 199 0.92500516436606384 15 10301 17 7154 12 5983
7418 -0.72842431694093424 0.30577895432888419 4.1639939338130967 65 64 59 1.6128701146931144 15 5556 17 7162 12 4874 1 5125
7419 -0.33146010455819985 0.28795616481796005 3.9864814133389714 104 104 94 1.1713144017391026 15 10188 17 7176 12 9238 1 6772
7420 -0.86540901950017646 0.32354641555155228 4.2142154903827533 206 205 206 0.83083120214958106 15 5563 17 7181 12 3472
7421 -0.32645889672120587 0.26453718717833924 3.990530336925123 160 162 151 1.2091112363581658 15 7919 17 7200 12 4908
7422 -0.31679566416091465 0.26911703361012923 3.9848378478007849 100 100 92 1.097878225026192 15 7967 17 7208 12 4863
7423 -0.45306613483652286 0.288807242434381 4.0886286284842157 228 209 176 0.56114535650832176 15 7963 17 7211 12 4906 1 6790
7424 -1.340860708018029 0.3225593057491466 4.2392170103807576 249 245 242 1.0962140347520044 15 8001 17 7218 12 7066
7425 -1.5532359309154797 0.24224444108309717 4.2361871318180153 158 150 142 1.7382861265644136 15 4324 17 7221
7427 -0.31759654216310251 0.21684207529486321 4.0000030930150077 51 52 45 0.9212282673014528 15 7849 17 7247 12 4414
7428 -1.169395006596905 -0.47226151919860265 4.6176587656853529 31 27 18 0.12763912423528834 15 6199 12 4969
7429 -0.12606532559887318 -0.53939387297010855 4.0154436656323265 85 84 79 1.3724841111100257 11 8190 17 7361
7430 -0.60680832951335695 -0.06970208279558196 4.0476441906590317 129 118 101 0.36208473998058488 15 7468 17 7365 12 4663 1 5618
7431 -1.8022187882441987 -0.59258029322166117 4.7028738630336759 71 69 64 0.74454674378189767 15 8917 17 7437 12 7742
7432 0.43043333040840248 -0.22859537553402698 3.9316808358963682 252 232 163 0.67497050797084945 15 7699 17 7475
7433 -1.1973669618041849 -0.39583782615358931 4.6933017651116318 76 69 61 1.8044468054021749 15 8824 17 7494 12 8083
7434 -1.4981370006097452 -0.28331051900423448 4.3537124400005469 70 67 58 1.6270019919284981 15 8794 17 7583 12 5391
7435 -1.6732689729711703 -0.31689056943518179 4.3867400795351861 136 129 110 0.40340994657546314 15 8542 17 7599
7436 -0.96584539696449567 -0.30644781607218541 4.4196702972544673 11 10 5 1.8315444450475751 15 5079 17 7629 12 4459
7437 -1.0149906699694247 -0.40506429320591669 4.150571115923757 134 95 21 0.83448814593168974 5 5412 17 7671
7438 0.43921280069740021 -0.43092236522403438 4.2259547597791736 72 71 67 2.2929490665102676 11 5997 17 7677
7440 -1.6594141627419554 -0.50558349558381355 4.6357004226186458 49 46 39 0.3068139269867593 15 9066 17 7736 12 7466
7441 -1.0015934229445922 -0.36998664794862834 4.3894668999148188 68 65 60 0.4819640632841462 15 8691 17 7789
7442 -1.5749093507702498 -0.40981651890278348 4.4865168592484714 185 180 176 0.4081034611922239 15 8710 17 7850 12 7574
7443 -0.97979800629413905 -0.38386151203983515 4.1538399578760545 42 33 21 0.42240068373641271 16 11104 17 7865
7444 -0.54879585516137108 -0.076482093942723609 4.0351636489707712 132 119 100 0.62877279711479384 15 7503 17 7895 12 6777
7445 -0.38749188479511265 -0.058248865684899204 4.0198871233390783 225 215 213 1.8431052841615625 15 7563 17 7921 1 3924
7446 -0.62315591038381657 -0.09987217925162134 4.0497113520558221 206 194 178 1.8353015154479 15 7712 17 7949 12 3693 1 3917
7447 -1.2010294082518016 -0.081483414947751423 4.2415097843885983 21 20 15 2.4293062204333111 15 7750 17 7961
7448 -0.41159915906093542 -0.080981541817090302 4.0133585953404545 32 33 25 1.7913514896839837 15 7456 17 7967 1 7664
7449 -0.70978197799906184 -0.088384761255692806 4.0392748713946176 121 121 111 0.70799685181295424 15 7756 17 7972 12 5284 1 5610
7450 -0.67712183629177991 -0.090900487684546602 4.0328580747401324 213 214 208 0.72392728808584683 15 7759 17 7979 12 3734
7452 -1.3649118729815122 -0.042027633495565785 4.3144420344044487 184 180 177 0.8901855717955649 17 8068 12 6797
7453 -0.4795718409794546 -0.018226725984886297 3.997198023771003 206 203 196 1.0068082585195803 15 7552 17 8077 1 7250
7454 -0.12990603148235252 -0.21583044287982667 4.0826392606348234 103 51 3 0.59078675590969709 15 7623 17 8179 12 5410
7456 -0.13088219055747241 -0.13558367150465145 3.9875000917439669 184 181 164 0.36562616994530378 15 7791 17 8329 1 6436
7457 -1.403939791350127 -0.91181927136444152 4.7288934353288123 22 23 18 1.1665463351450078 5 3090 17 8526 9 1676
7458 5.5637333467324277 -21.130136948268081 65.874855722306734 76 87 90 1.3672954784093536 18 4079 17 8566 10 4939
7460 0.62859908718073354 -0.30449330383602013 4.1639891954855406 35 33 22 0.2726613076507638 15 8783 17 8667
7462 -0.48429535383680761 -0.54809483346806775 4.0882829199816335 181 181 181 1.2417111040191366 15 8425 17 8855 1 6504
7463 -0.23601185508180028 -0.58356174733882216 4.1181016722107628 97 96 91 0.38650439351050941 17 8880 1 6612
7464 -0.55204907403941428 -0.56472532944105069 4.1076880903185184 153 153 149 1.1998842528324491 15 8410 17 8903 1 6608
7465 -0.14601685139520212 -0.58236834846786634 4.3544284304671885 166 149 136 2.0465137643461673 11 5542 17 8989
7466 -0.0128714836441889 -0.59134063154621008 4.0357196550495651 96 95 90 1.6520657546561264 11 7925 15 8251 17 9165
7467 -0.13944671062436115 -0.59010815726022636 4.0439288416352479 243 245 240 0.60041012551204764 15 8254 17 9176 1 6635
7468 -0.86786215337529182 -0.67062202184475805 4.3872033443201852 8 9 13 1.7352920318983021 15 8328 17 9266
7469 -1.3860079723470962 0.49005068377218242 4.1538170138307171 24 23 19 0.17279683658652237 15 9972 17 9287 12 6004
7470 -1.2722774626521975 0.51784117751885905 4.2560000041760802 81 64 57 0.59738030790664431 15 6916 17 9343 12 9758
7471 -0.446442347369359 0.49528956680323516 4.066310294174202 165 162 154 0.37435237241614355 15 10079 17 9362 12 7650
7472 -0.56821770021475815 0.57680242006469162 4.092391894161266 179 162 136 0.88525614814732345 15 10592 17 9439 1 7625
7476 -0.40564768076501728 0.8036435147880312 5.1716667018809641 176 160 133 1.1876113702382798 15 10629 17 9555
7477 -1.0582701149083842 0.012576918893343218 2.8900317142466778 171 169 165 2.0025746031102916 15 7784 17 9557
7478 -0.34723085411141247 0.38038056342464999 3.9728775315196714 157 158 150 1.2124211369047475 15 8484 17 9588 12 9192 1 6974
7479 -0.47424539901593926 0.40569953078375809 4.0881496843419569 195 180 157 0.53129609108186848 15 10227 17 9592 12 5953 1 7009
7480 -0.73689815730592745 0.4672272084496516 4.1162274935588012 171 166 161 1.1636115491191494 15 9998 17 9649 12 9712
7481 -1.359056871565417 0.46529374229783799 4.2419000330788643 170 155 147 0.4809171964626256 15 10233 17 9664 12 9200
7483 -1.0454971246285183 0.46987154128350694 4.2109878274790296 171 148 130 0.90346719377504126 15 8468 17 9734 12 9153
7484 -0.23015418395239307 0.66165103662564162 3.8975270637976589 70 67 60 0.76151011498770627 15 10402 17 9810 12 5486
7485 -0.33926914895425669 0.64777204619575224 3.9598204234192025 16 16 8 0.49448613186502222 15 4772 17 9828
7486 -0.4057176942660633 0.70363899079839864 4.0609858720060776 140 128 111 1.0091244848637557 15 7202 17 9861
7487 0.079898253759102464 0.68208782165765414 3.8452995113063864 47 49 33 0.31028627007660303 15 7130 17 9935
7488 -0.36182584906340232 0.69821001108435432 3.9661253660790861 130 128 120 1.4077689525014829 15 10340 17 9959 1 7510
7489 -0.71465107396710315 0.62929729283702607 4.1322607785983188 157 139 115 0.5955579275856796 15 10530 17 10006 12 9594
7490 -1.1105597340408615 0.64881388811813268 4.2301316504266167 43 33 24 0.79596526156285741 15 10618 17 10027 12 6473
7491 -0.35752068212623994 0.55895298908470625 3.9527012354028521 150 150 142 0.45642304505894354 15 10552 17 10103 12 9601
7492 -1.0172324992444826 0.67293571355181914 4.1877682224751052 83 70 53 1.874691588566213 15 6859 17 10126 12 8461
7493 -0.45573103565842149 0.65534534703892222 4.0630963381186094 163 159 150 0.98657740646249925 15 7384 12 5603 17 4625 1 3328
7496 0.26303289857988893 0.16114203042511327 3.9158396750517648 39 33 13 2.2614383095905843 15 7834 17 10428
7497 -1.2514340851500134 0.013684128249998699 4.0461830622324602 158 150 147 0.15182214017756077 18 6990 17 10475
7498 -0.43624041333800923 0.06931055237709452 4.1729683666958559 66 64 56 1.4620623898119387 15 8203 17 10494 12 6681
7499 -0.21065191943261846 0.030620558914806643 4.07091360482569 104 101 94 0.66623245367914841 15 5340 17 10561 1 7264
7500 -0.83852357519010201 0.11861283685930379 4.2880188290770347 196 192 189 0.4293832416086158 15 8221 17 10586 12 7242
7501 -1.3793628106835782 0.083517758851544638 4.2502696202606112 69 66 59 1.59884653075832 15 8046 17 10609 12 4599
7502 1.9700599489035799 0.81467911079990907 5.787000896254388 0 0 0 0.83757578200985605 5 5086 11 10047
7503 -0.71920185108913104 0.094026366255708371 4.2565798276669735 206 198 186 1.3375009596337724 15 8456 17 10689 12 6660 1 2736
7504 -0.25369501026264862 0.30088194134713281 3.9928771628049029 46 42 34 2.5205654112088065 15 5527 17 10777
7505 -1.5488747522987991 0.29776023420896208 4.1661260913640383 141 140 136 0.43429355867196429 15 7992 12 4798
7506 -1.3849943518735977 0.31042379650984964 4.1814999274488676 85 84 80 0.39796266179381456 15 8011 17 10794 12 4794
7508 -1.5283008702709515 0.33592358889252044 4.193895732089536 61 60 56 0.80400533326407408 15 7937 17 10887 12 4949
7509 -1.1483179008416444 0.35566248035742548 4.2066421489407295 241 245 248 0.30174662739868319 15 10178 17 10897
7510 -0.33842274322658256 0.2243312972319913 4.0406461139840406 47 45 23 0.95719648363840037 17 11009 12 7013
7512 -0.54825018733813491 0.29586560571238485 4.1383547288925318 202 190 169 0.55392646075698737 15 7965 17 11149 12 4870 1 6815
7513 -1.3562680260505335 -0.041459401434404713 4.3120836456839138 143 142 137 0.94557111297269147 5 2063 15 886 17 815 16 11184 18 10704 12 602 2 2137
7514 -1.4215297905332143 -0.38916782333323741 4.5001233815182538 4 4 1 1.5620117201536829 8 3425 17 500 5 1565 16 7341 12 578
7515 -0.78619671625748122 -0.57083132498184608 4.2535267230013023 19 20 22 1.7275136952773666 18 139 17 5 10 173
7516 -1.1143113781315266 -0.41411587407060324 4.418637354281028 39 38 32 0.66291248098451572 5 157 17 29
7517 -0.13880053478711912 -0.42530329990702909 4.3271410372666743 42 13 6 0.71647952984026508 15 60 17 30
7518 -1.3027735198753994 -0.17970320724951949 4.4930093123208907 40 35 29 1.0292376397603633 16 1263 17 147
7519 -0.30375729964456 0.1918421677081234 4.0156241594045445 224 222 207 2.083338189651506 18 2278 12 146 1 151 2 514 10 1550
7520 -1.1583290206624532 -0.80923454882123669 4.7873459752998508 143 140 135 2.2232111528828411 5 375 16 1360 17 178
7522 9.8451128099727612 -35.316455231575389 102.0383924444846 184 190 190 1.1750841788142397 6 151 18 333 17 333
7523 0.1465382684468286 -0.47559178204415054 4.0441369182563047 92 62 64 2.8323123199500948 6 989 17 360
7525 -0.9953171218854352 -0.015061745802646107 3.5455237659333778 44 37 29 1.2866752055805897 5 2060 17 547
7526 -1.2999284929892048 0.044981125832223343 4.3192078192630152 149 145 141 0.74052475279740881 16 11890 17 1178
7528 -1.2786215099821865 -0.86793942903860977 4.7300666107568405 14 14 12 0.50932295115963677 16 8629 17 1924
7529 22.518591744369733 -41.119141499323455 113.64216955054022 142 144 139 1.7337237958838017 7 5222 8 4899 16 6501 6 6054 18 9433 1 4835 2 4658 13 3307
7530 -1.5291707905572109 0.62883424102975549 4.2291607984757915 30 26 17 2.274907837167973 15 3613 17 2578 12 3191
7531 -1.4629793886606488 0.64418649361915592 4.204339230906645 21 20 15 0.073902367958143325 17 2591 12 4359
7535 -1.4210737767837391 0.73315268093980979 4.1857399735312999 144 144 142 0.2038939274318019 17 3449 12 4296
7536 -1.4888981624711324 0.6114663840514456 4.1876309289818385 92 85 79 0.34826695323563067 17 3496 5 5041
7538 -0.30718182298050045 -0.13221693236619186 4.047189033226493 242 236 243 0.81303589509292695 15 6611 17 3977
7539 -1.3585025543830127 0.43503168977353818 4.2456800074679224 95 80 75 0.47987224857421418 15 3927 17 4590 12 4204
7540 -1.4915669439258266 0.6622536493697514 4.1947883798337555 136 132 125 2.2451006883712452 15 10614 17 4624 12 2645
7541 -1.4176927929752929 0.10852452818982487 4.2201498342467261 209 205 202 0.15877448940221678 17 4794 12 1908
7542 -0.28522685418829724 0.26004510983450108 4.0024123235070332 156 149 131 2.729564545202372 15 7935 17 4917
7543 -0.44102650152163803 0.28159546415677406 4.0854544122250349 231 215 185 0.18455876733789275 17 4926 12 3449 1 6773
7544 0.40020273856058963 0.31334491267563674 21.068147990394735 161 159 146 2.8234843610347489 8 3521 17 4991
7545 -0.25727105702970654 0.38656078251973791 4.0925631142114058 172 167 156 3.0704495590638183 11 9942 17 5056
7546 -1.4845609303454976 0.76092773497870803 4.1817984359878118 89 88 84 0.00010483499875312276 17 6582 12 8556
7547 0.35293958752267079 0.67465324887247424 3.7479348459528907 0 0 0 1.0162832714572678 11 10276 15 7428
7549 -1.4568157734276233 0.66108448761899596 4.1826573040093358 93 84 81 2.5379349459865548 15 10610 17 6719 12 6397
7551 0.3759422647115796 -0.67193132106506315 4.2339299804080301 193 187 172 1.5804896169504792 11 7992 17 9238
7554 39.100587920845527 -27.962960601200411 66.971347868688966 21 26 23 0.8678027568411536 5 2224 6 2224 7 2258 16 1924 18 1921 1 2259 2 2255 10 1983 13 2107
7555 38.709183763108072 -28.04027767678593 67.066751327424015 117 122 121 0.65950966819191181 5 4636 6 6125 7 5266 16 5175 18 5782 1 4568 2 6028 10 5645 13 4133
7556 -2.3441222115709741 0.63501015034880204 4.7038710811800275 103 96 88 1.3931826759132813 16 721 12 14
7557 -0.85938968514266545 0.62319892388167231 4.1441480229522014 197 198 192 0.97239076528642054 18 381 12 16
7558 -1.7093303264057143 0.68562353086395733 4.2128580634860739 104 90 81 1.0895641740423143 15 87 2 198 9 1366
7559 -0.88762354013585654 -0.28350807752737239 4.1806343070761773 19 18 13 1.8913581748046766 5 100 12 32
7560 -1.1595250666743575 -0.18365677408621661 4.2370812328862613 11 9 2 2.7840991725946673 18 1191 12 36 2 345 10 1206
7561 -1.3253253015572184 0.61118360997049326 4.1761833236782904 0 0 0 0.9613788464462093 17 46 18 799
7562 -0.58712289278937335 -0.010366760540455398 4.0539364702608189 68 59 42 1.7694806249227069 5 337 18 1157 12 58
7563 -0.52972720857769207 -0.067720979148397115 4.0490827060098145 197 180 160 1.55648330739667 18 1197 12 60 2 342 10 1143
7564 -1.1950463050125555 -0.25822349386348398 4.2581486288723358 197 196 192 1.6518123452984237 12 66 9 1486
7565 -0.4906412524954768 0.23117386945980528 4.1561333517943426 197 194 185 0.39931717859487548 17 77 18 1712 12 91
7566 -1.0911250404373622 -0.10077735779681814 4.3776830631273205 69 69 61 1.331346955224288 16 1097 12 99
7569 -1.3201038292738352 1.0723794973177601 4.2640040845907485 74 65 58 1.4414779312170081 8 1053 12 127
7570 -1.3047741039724277 0.23577425252962414 4.2584198648762595 58 49 40 0.038905409127598586 16 1564 12 134
7571 -0.27599668320712495 0.19217599104278926 3.9719401414769884 0 0 0 0.62119459393664977 5 508 16 1558
7572 -0.70151529769037857 0.03526140898990468 4.2165232455142219 144 134 122 0.45721950279173773 17 544 12 159
7575 -0.34491044438799279 -0.18972359103556524 4.1023771884527793 28 21 11 2.5677378158975603 5 975 12 192 2 1321 9 4816
7576 -0.41393803276740193 0.315167194133052 4.1048573138982061 191 187 175 1.5298534652353364 18 2294 12 225 2 885 10 3467
7577 -1.028493632892544 0.69621493494283782 4.1809541743630243 125 109 93 0.94214569428676498 18 1698 12 241 2 321
7578 -1.3079694792896723 0.58077967853119139 4.165813721857293 27 29 25 2.1493888555883682 16 2342 18 3617 12 245 2 1197 10 3420
7579 -0.98061910128884255 -0.24017729756196976 4.1496234210731799 17 17 13 1.0461685990959619 16 11059 12 254
7580 -0.0612970963939019 0.1175560966008898 4.0306073473577264 113 110 101 0.58479110641152909 1 572 2 1466 10 3823
7582 -0.88011294972827869 0.11127894045660057 4.2002946121077365 104 103 95 0.20243569399456363 18 4724 12 275
7583 -0.25019957401900855 0.07813395995625759 4.0909855201714489 19 19 17 1.0810398412510378 17 548 12 276
7584 -1.2027966281049778 0.78751159325890951 4.1997581192514728 40 36 27 0.34445851348251089 5 908 18 11321
7585 -0.8656417660509983 0.021295309488577756 4.2396905338833664 63 60 51 0.058314953351189011 18 4754 12 296
7587 -1.5114625573555749 -0.45453472727807215 4.5164574163654914 134 130 126 2.3168086688600797 18 2775 12 311
7588 -1.9785684061526285 -0.46818886821831718 4.6480671577803898 46 42 39 1.4190266984961664 8 3443 15 345 12 312 9 3342
7589 -1.1853850796099528 1.2314071373043354 4.3707891105924679 19 17 7 1.115918547739615 18 7162 12 347
7590 -0.46210230545825948 0.42505968346843792 4.0848024244265728 176 166 147 1.6810891014208995 17 387 12 362 1 379 2 1349 10 3390
7591 -0.13892773342110357 0.25445775624535227 3.999260714183575 133 130 125 2.0616214262063104 17 441 12 369 1 395
7593 -0.25989754531118731 0.62699504155862262 3.9391196454483728 25 26 21 0.96345688738202706 17 585 12 373
7595 -1.0933338633803917 -0.3183315809133504 4.4964151027043844 34 31 26 0.51335340908643667 17 325 12 418 16 3615
7596 -1.1450129386261176 -0.15528240746034894 4.2541596609843069 23 19 16 0.39705045134952366 12 423 10 9793
7597 -0.93789154942298336 1.0122070463059831 4.1495189172013864 93 100 84 1.7369830837889428 15 1191 12 440
7598 -0.52257692843475889 1.1028428521431535 4.1976928162020295 100 91 76 1.5820899841493545 18 2180 12 447 2 751 10 2347
7599 -2.1554889497081353 0.81004523018290575 4.2761894612733169 63 55 42 1.9846253572383492 5 1732 12 482
7601 -0.10823088083155337 0.031945863672457261 4.1460686207232573 55 40 21 1.4520928208918606 17 1214 12 525 1 1465
7602 -1.2204430626676086 0.048724177930791167 4.2085967817108152 48 48 42 0.047224189707677569 18 10729 12 530
7603 -0.90673870988553751 0.31010005668792823 4.1242378471103693 49 49 41 0.88790267526809818 18 6831 12 549 2 5413
7604 -0.32805071263003777 0.2712667902145568 3.9875652939230157 107 108 102 0.31417764995847269 18 7413 1 914
7605 -0.21835495104248592 0.2340177758710914 3.9718689005590289 24 24 16 0.7263307019483517 18 6880 12 556 1 1369
7606 -0.48093509304520088 0.18691822056731072 4.1591374635519678 202 199 192 2.0259361126471735 5 5669 12 562 1 1366 2 3902
7607 -1.0008395769933871 -0.39467823426053417 4.2220999914829376 46 44 31 0.63159709316664348 17 629 12 569
7608 -0.11079558476664729 -0.40184618043448733 4.0696846556084516 12 9 3 2.3187950950839444 17 1450 12 585 1 2197
7609 -1.3922748952482404 -0.4659815339475637 4.4961303106000612 96 92 83 1.1537986979261723 15 1910 17 639 12 589
7610 -0.55051654527189087 -0.4173651148654583 4.1084754457215809 37 37 35 1.5072342628355746 17 637 12 590
7611 -0.8907608817316478 -0.18375711776010495 4.1892936219795915 159 158 156 1.5776749928907754 15 914 12 616 2 2178 10 5329
7612 -0.65107534779836063 -0.23578931177562656 4.2048770392785633 0 0 0 0.53666018249621628 5 4016 17 1506
7614 -0.063402264731666519 0.46300118319330591 3.893700897817407 178 184 175 0.68947851335878929 17 1098 12 697
7615 -0.10291984447893708 0.33844277621161845 3.9734331096004247 26 25 21 1.8214431014040813 17 1289 12 708 1 2476
7616 -0.16432628650889125 0.69389055206710526 3.9637683944631013 16 13 6 0.97120770922318655 17 772 12 718 1 856
7617 -2.1837342060367861 0.87459050232959723 4.3400427669600594 65 55 43 1.3268651678905066 5 2666 12 724
7619 -0.71557871743465595 -0.047916365791066375 4.0460796680435216 239 239 231 0.71095641810810484 17 1256 18 10714 12 751
7620 -0.89591425174642914 -0.054166930959787973 4.2757736195115923 133 132 128 1.0414430738575531 18 8792 12 753 2 3974 10 9950
7621 -0.47712627586558171 -0.12013620624415604 4.0316730749775811 57 23 21 0.89324373171236748 15 1460 12 772
7622 -0.76821121393756286 -0.12883944771318218 4.1340019222365987 176 173 164 2.3002320474692914 17 948 12 781 1 1331
7623 -0.72219502680152159 -0.11727831360859824 4.1067293631595785 20 17 9 0.6180954353071012 17 1021 12 783 1 1337
7624 -0.4459341750730374 0.12005351462095147 4.1848656021051678 176 172 163 2.0343202987235554 17 1296 12 796 1 1353
7625 -0.24247561400762269 0.11727521877575198 4.053208940401559 142 142 134 0.80818126950216596 17 1710 12 809 1 1390 2 5466
7626 -0.0482337342123094 0.15091790016994822 4.0295644047053525 26 26 18 0.5679246988280533 17 1663 12 818
7627 -0.87213397767135259 0.19470084384818187 4.2146587847946098 219 221 220 0.94237716335218624 17 10444 12 819
7628 -0.45336164063421952 -0.0033146707547190256 3.9973746883153805 37 34 27 1.1336816042093867 17 2561 12 822
7629 -0.033458572830608019 -0.47593066699658509 4.1130632435996031 117 88 93 1.5720895550077674 17 1451 12 849 2 3113 1 1049
7630 -0.15514086915093853 0.48477199474616628 3.9733404409512687 20 17 8 1.8872546542722008 17 1597 12 867 1 1669 2 7842
7633 -1.9587196719885926 -0.58630399253481835 4.6722955210171504 49 49 41 1.5161527645204382 5 2983 12 889 2 2031
7634 -1.4806315318623755 -0.28121377793066399 4.3574223818619355 18 17 12 1.7112403778983765 12 903 10 3859
7637 -0.52780934124586809 -0.21356239924448872 4.1549622476236312 34 24 8 2.2864895034651815 5 7793 12 912
7638 -0.96900313645622305 -0.19018297307126392 4.2041355220925212 176 172 169 2.1834293486796934 18 10606 12 913 2 3929
7639 -1.5033906978003793 -0.32853066221490007 4.3899029385551405 39 40 35 0.95416034775891001 16 7432 12 930
7641 -1.390142317872197 -0.31906582888990254 4.4442154575066644 28 26 21 1.6491587665441045 15 902 18 7325 8 6778 2 1493 9 4531
7642 -0.56055076095057066 -0.30026882777488034 4.1339216552202105 215 180 34 1.5996491390319392 17 969 12 936 1 1030
7643 -1.6014602623872876 1.0670161997267589 4.2696396422877863 133 126 110 1.7342895422116902 15 2257 12 950 2 3572
7644 -0.10800048501532553 0.73720785804820654 3.9235697290552833 120 120 108 1.1200713279162535 17 1172 12 963 2 4870
7646 -1.0489511080274114 0.8408697886941211 4.2277207458574946 101 85 69 0.58042209037856229 16 10340 12 966 2 3590 10 10318
7647 -0.47118821034171504 0.3074521234321192 4.1170017770643375 207 201 189 1.0234920332598405 17 1769 12 1039 1 1871 2 5374 10 8094
7648 -0.73446327514097898 0.39110603060381716 4.1404474342945834 221 219 208 0.96241313769689474 17 868 12 1046
